0.739415,-0.97482,0.0156021,0,255,0
0.795541,-0.976668,0.0192194,0,255,0
0.818732,-0.975001,0.0198574,0,255,0
0.87569,-0.975779,0.0248556,0,255,0
0.940751,-0.97401,0.026144,0,255,0
0.997909,-0.97587,0.0294065,0,255,0
1.01308,-0.975664,0.0297356,0,255,0
1.05575,-0.975602,0.0301695,0,255,0
1.11502,-0.987666,0.0344772,0,255,0
1.19717,-0.994377,0.0351982,0,255,0
1.26703,-0.996367,0.035244,0,255,0
4.49258,-0.967056,0.0146227,255,0,0
4.5266,-0.954893,0.015913,229,25,0
4.57746,-0.959124,0.0210638,0,254,0
4.62667,-0.961296,0.0210781,0,254,0
4.67577,-0.965924,0.0274544,0,255,0
4.72624,-0.970133,0.0325937,0,255,0
4.77648,-0.972842,0.0338812,0,255,0
4.82008,-0.974972,0.0338964,0,255,0
4.85721,-1.00166,0.0264893,0,255,0
4.90634,-1.00078,0.026619,0,255,0
4.97699,-0.99672,0.0328856,0,255,0
5.00448,-0.990025,0.0328884,0,255,0
5.05784,-0.968011,0.0298672,0,255,0
5.10584,-0.973742,0.0264568,0,255,0
5.1562,-0.997967,0.0214596,0,255,0
5.21136,-0.994185,0.0224457,0,255,0
5.26072,-0.969556,0.0329037,0,255,0
5.31215,-0.994407,0.0328722,0,255,0
5.35423,-0.996703,0.0297194,0,255,0
5.4281,-0.976349,0.0339422,0,255,0
5.45554,-0.997688,0.0338812,0,255,0
5.53586,-0.962632,0.0348883,0,255,0
5.57119,-0.975007,0.0355682,0,255,0
5.64388,-0.971658,0.0284901,0,255,0
5.65789,-0.992584,0.0285835,0,255,0
5.70084,-0.986646,0.0285606,0,255,0
-0.364711,-0.914636,-0.00815582,0,255,0
-0.338733,-0.921534,-0.0107813,0,255,0
-0.263471,-0.917989,-0.0102005,0,255,0
-0.226972,-0.92652,-0.0120707,0,255,0
-0.161075,-0.915336,-0.0108547,0,255,0
-0.119718,-0.914298,-0.0112619,0,255,0
-0.0575829,-0.91598,-0.0118456,0,255,0
-0.00813961,-0.918533,-0.0106869,0,255,0
0.0286407,-0.926059,-0.00643349,0,255,0
0.0580435,-0.915487,-0.0034914,0,255,0
0.109616,-0.926343,-0.00334167,0,255,0
0.16751,-0.926715,-0.00254059,0,255,0
0.205464,-0.925991,-0.00131035,0,255,0
0.263531,-0.926649,-0.000202179,0,255,0
0.313939,-0.925973,-0.00291538,0,255,0
0.356519,-0.926927,0.0092144,0,255,0
0.413627,-0.927216,0.0144825,0,255,0
0.457779,-0.926962,0.012908,0,255,0
0.504015,-0.925549,0.0160131,0,255,0
0.561437,-0.93021,0.0184078,0,255,0
0.639333,-0.927319,0.0202608,0,255,0
0.686592,-0.925185,0.0248737,0,255,0
0.737735,-0.928864,0.028326,0,255,0
0.793048,-0.932673,0.0309448,0,255,0
0.816816,-0.929125,0.0339756,0,255,0
0.874156,-0.93853,0.0328283,0,255,0
0.938555,-0.933361,0.0352221,0,255,0
0.99742,-0.940272,0.0334911,0,255,0
1.01184,-0.938972,0.0352287,0,255,0
1.05466,-0.944129,0.0352287,0,255,0
4.49417,-0.947379,0.0163565,255,0,0
4.5221,-0.907614,0.0302267,255,0,0
4.57188,-0.911597,0.0340652,25,229,0
4.60771,-0.914266,0.0366125,0,254,0
4.65736,-0.950314,0.0249157,0,254,0
4.70885,-0.951478,0.0286274,0,255,0
4.76052,-0.951147,0.0338669,0,255,0
4.80786,-0.9518,0.0338793,0,255,0
4.85365,-0.926474,0.0338068,0,255,0
4.91926,-0.942204,0.0264835,0,255,0
4.96616,-0.944196,0.0296755,0,255,0
5.01412,-0.945776,0.0328693,0,255,0
5.05507,-0.949689,0.0328827,0,255,0
5.11276,-0.945149,0.0328865,0,255,0
5.16858,-0.934564,0.0328865,0,255,0
5.22308,-0.93497,0.0328875,0,255,0
5.25247,-0.951715,0.0328159,0,255,0
5.31554,-0.938179,0.0265007,0,255,0
5.38808,-0.916996,0.0332775,0,255,0
5.40714,-0.940845,0.0338974,0,255,0
5.45971,-0.934546,0.0264845,0,255,0
5.52342,-0.924535,0.0359764,0,255,0
5.55653,-0.927101,0.0331669,0,255,0
5.63042,-0.928007,0.0284491,0,255,0
5.69137,-0.92519,0.0285397,0,255,0
-0.439849,-0.8667,-0.00700569,0,255,0
-0.375435,-0.877522,-0.0108795,0,255,0
-0.340851,-0.876014,-0.0113096,0,255,0
-0.265353,-0.879749,-0.0114222,0,255,0
-0.229211,-0.880702,-0.0092659,0,255,0
-0.161182,-0.878817,-0.00996876,0,255,0
-0.103226,-0.873755,-0.0105953,0,255,0
-0.0807514,-0.870727,-0.0105915,0,255,0
-0.00262165,-0.877102,-0.00753784,0,255,0
0.0276251,-0.878175,-0.000676155,0,255,0
0.058238,-0.877096,-0.00252628,0,255,0
0.109472,-0.876941,-0.00330734,0,255,0
0.166793,-0.876535,0.00191116,0,255,0
0.205256,-0.876532,-0.000447273,0,255,0
0.262801,-0.876121,0.0042038,0,255,0
0.312247,-0.875872,0.00977707,0,255,0
0.35533,-0.876997,0.0178814,0,255,0
0.412807,-0.875513,0.0196514,0,255,0
0.45652,-0.875757,0.0219688,0,255,0
0.503116,-0.875384,0.0224676,0,255,0
0.559806,-0.874506,0.0291634,0,255,0
0.637637,-0.879814,0.032876,0,255,0
0.685198,-0.880461,0.0351686,0,255,0
0.736739,-0.88059,0.0351753,0,255,0
0.784059,-0.896632,0.0333967,0,255,0
0.816691,-0.891637,0.0352125,0,255,0
0.939649,-0.895111,0.0352135,0,255,0
4.49496,-0.89216,0.0302219,255,0,0
4.52496,-0.892873,0.0302305,255,0,0
4.56943,-0.896153,0.0339794,28,226,0
4.60508,-0.899009,0.0366125,0,254,0
4.65562,-0.901476,0.0219097,0,254,0
4.70964,-0.899874,0.0281086,0,254,0
4.77012,-0.896392,0.0338535,0,255,0
4.81381,-0.896772,0.033865,0,255,0
4.86661,-0.897742,0.0338783,0,255,0
4.91084,-0.896469,0.0264683,0,255,0
4.95624,-0.896924,0.0264769,0,255,0
5.00796,-0.900896,0.0265312,0,255,0
5.06358,-0.89487,0.0324621,0,255,0
5.11089,-0.886879,0.031249,0,255,0
5.16849,-0.87811,0.0289946,0,255,0
5.20564,-0.900975,0.0312786,0,255,0
5.27386,-0.875045,0.0264711,0,255,0
5.3395,-0.867893,0.0323601,0,255,0
5.36117,-0.890565,0.0339146,0,255,0
5.40604,-0.896518,0.0304546,0,255,0
5.49146,-0.859703,0.0274887,0,255,0
5.50838,-0.877478,0.0302954,0,255,0
5.55133,-0.891057,0.0200367,0,255,0
5.61349,-0.875657,0.0282402,0,255,0
5.68403,-0.877524,0.0285225,0,255,0
5.74782,-0.857692,0.0349131,0,255,0
5.75217,-0.885927,0.0349216,0,255,0
-0.439885,-0.830837,-0.00701714,0,255,0
-0.375926,-0.830807,-0.0110073,0,255,0
-0.329762,-0.819643,-0.0112705,0,255,0
-0.265435,-0.829254,-0.0113783,0,255,0
-0.210553,-0.818091,-0.00529575,0,255,0
-0.153603,-0.820376,-0.00861931,0,255,0
-0.113601,-0.823827,-0.0116625,0,255,0
-0.0834475,-0.827257,-0.0105906,0,255,0
-0.00251865,-0.826844,-0.00597382,0,255,0
0.0272217,-0.826638,0.00109673,0,255,0
0.0580263,-0.825902,-0.00180435,0,255,0
0.109398,-0.825608,-0.00329685,0,255,0
0.165885,-0.826634,0.00770092,0,255,0
0.205097,-0.825757,6.86646e-05,0,255,0
0.261844,-0.826466,0.0100937,0,255,0
0.312146,-0.826356,0.00984955,0,255,0
0.354946,-0.826423,0.0203114,0,255,0
0.412609,-0.826114,0.0205221,0,255,0
0.456398,-0.826146,0.0224943,0,255,0
0.502306,-0.825396,0.0281754,0,255,0
0.55914,-0.824438,0.0332861,0,255,0
0.637286,-0.824305,0.0350056,0,255,0
0.685131,-0.824128,0.035183,0,255,0
0.736748,-0.827773,0.0351353,0,255,0
0.816605,-0.82848,0.0351934,0,255,0
4.48984,-0.828005,0.0339985,255,0,0
4.54464,-0.847836,0.0302229,255,0,0
4.56008,-0.850948,0.0307722,255,0,0
4.61396,-0.843007,0.0365982,106,148,0
4.67707,-0.842004,0.0236034,51,203,0
4.70656,-0.850785,0.0274601,0,254,0
4.75491,-0.848532,0.0307026,0,254,0
4.82075,-0.839658,0.0338345,0,255,0
4.87715,-0.838499,0.0338583,0,255,0
4.90353,-0.835678,0.0337391,0,255,0
4.96083,-0.845871,0.0264177,0,255,0
5.03172,-0.820502,0.0264549,0,255,0
5.06101,-0.843893,0.0264673,0,255,0
5.12267,-0.830708,0.0264721,0,255,0
5.15503,-0.846498,0.0264807,0,255,0
5.24331,-0.81198,0.0329323,0,255,0
5.25517,-0.826458,0.0326986,0,255,0
5.31465,-0.820949,0.0338821,0,255,0
5.36282,-0.827305,0.0303679,0,255,0
5.41694,-0.82834,0.0207796,0,255,0
5.47999,-0.81786,0.0332909,0,255,0
5.52725,-0.831268,0.0281401,0,255,0
5.59233,-0.82197,0.0272627,0,255,0
5.60325,-0.840124,0.0273094,0,255,0
5.66395,-0.816056,0.0343647,0,255,0
5.74574,-0.82566,0.0285397,0,255,0
5.81129,-0.808942,0.0335922,0,255,0
5.88237,-0.810115,0.0341682,0,255,0
-0.439936,-0.781054,-0.0070343,0,255,0
-0.380971,-0.76835,-0.0115604,0,255,0
-0.322251,-0.779726,-0.0112152,0,255,0
-0.26592,-0.778503,-0.0115013,0,255,0
-0.221807,-0.767741,-0.0103073,0,255,0
-0.152806,-0.777554,-0.00849342,0,255,0
-0.114104,-0.777084,-0.0117264,0,255,0
-0.0647373,-0.772362,-0.00608635,0,255,0
-0.00260925,-0.777089,-0.005867,0,255,0
0.0271568,-0.777856,0.00107956,0,255,0
0.0584068,-0.776103,-0.00352478,0,255,0
0.109328,-0.776945,-0.00331306,0,255,0
0.165813,-0.777074,0.00769806,0,255,0
0.204945,-0.77652,0.000574112,0,255,0
0.261776,-0.776566,0.0100775,0,255,0
0.312078,-0.775693,0.00992107,0,255,0
0.354874,-0.775066,0.020298,0,255,0
0.411747,-0.775582,0.0260086,0,255,0
0.456326,-0.774659,0.0224819,0,255,0
0.501384,-0.7765,0.034832,0,255,0
0.559056,-0.776266,0.0333853,0,255,0
0.637197,-0.77614,0.0351782,0,255,0
0.685063,-0.77598,0.0351677,0,255,0
0.736468,-0.77582,0.0351763,0,255,0
4.57433,-0.767289,0.034359,255,0,0
4.61578,-0.793179,0.0365858,255,0,0
4.65683,-0.784284,0.0287628,255,0,0
4.71233,-0.792411,0.0273628,138,116,0
4.76736,-0.791536,0.0290136,0,254,0
4.80688,-0.799271,0.0338306,0,254,0
4.85741,-0.7982,0.0338421,0,254,0
4.92287,-0.781779,0.0338497,0,254,0
4.95885,-0.769274,0.0337238,0,255,0
5.0074,-0.799093,0.0263329,0,255,0
5.06161,-0.761507,0.0319386,0,255,0
5.1237,-0.776946,0.0301399,0,255,0
5.1595,-0.759083,0.0337791,0,255,0
5.21136,-0.772067,0.0338154,0,255,0
5.2855,-0.776706,0.0338354,0,255,0
5.31256,-0.781376,0.0274611,0,255,0
5.35549,-0.795826,0.0240879,0,255,0
5.40793,-0.775517,0.0359564,0,255,0
5.46362,-0.780689,0.0355339,0,255,0
5.52933,-0.76453,0.0344801,0,255,0
5.57983,-0.780862,0.0338163,0,255,0
5.63655,-0.763197,0.0257816,0,255,0
5.65447,-0.784504,0.0328751,0,255,0
5.7384,-0.777989,0.0285225,0,255,0
5.80797,-0.777711,0.030405,0,255,0
5.87714,-0.776119,0.0341587,0,255,0
-0.439984,-0.732339,-0.00705242,51,204,0
-0.382548,-0.729332,-0.0116806,27,227,0
-0.318645,-0.731069,-0.0107098,25,229,0
-0.28328,-0.729213,-0.0108948,25,229,0
-0.222736,-0.72931,-0.0108385,25,229,0
-0.152908,-0.728827,-0.00842381,25,229,0
-0.114169,-0.728312,-0.0117426,25,229,0
-0.0643129,-0.728497,-0.00458241,3,251,0
-0.00260925,-0.725003,-0.00488949,39,215,0
0.0270882,-0.726846,0.00106335,25,229,0
0.0583115,-0.727897,-0.00330067,0,254,0
0.107974,-0.733638,0.00672817,0,254,0
0.165561,-0.726147,0.00894451,50,204,0
0.203773,-0.732601,0.00918961,8,246,0
0.261551,-0.726046,0.0111341,50,204,0
0.312091,-0.730293,0.0100756,2,252,0
0.354879,-0.731506,0.0198584,0,254,0
0.411649,-0.726993,0.0262098,51,203,0
0.4552,-0.732173,0.0309858,0,254,0
0.501289,-0.729692,0.0350628,0,254,0
0.559025,-0.72925,0.0334339,82,172,0
0.637139,-0.72917,0.0351639,0,255,0
0.685188,-0.738693,0.0351276,4,250,0
0.738492,-0.729896,0.0345831,85,170,0
4.577,-0.749201,0.0347967,255,0,0
4.6462,-0.748128,0.036581,255,0,0
4.69713,-0.750382,0.021039,255,0,0
4.73285,-0.741834,0.0257368,255,0,0
4.77463,-0.741054,0.0285835,180,74,0
4.82407,-0.725064,0.0307674,109,145,0
4.85926,-0.745104,0.0338249,0,254,0
4.91571,-0.743648,0.033823,0,254,0
4.95917,-0.74556,0.0333738,0,254,0
5.02001,-0.728899,0.0338421,0,254,0
5.0619,-0.741953,0.0334682,0,254,0
5.11595,-0.733021,0.0338516,0,254,0
5.15243,-0.748376,0.0338593,0,254,0
5.24389,-0.715039,0.0312119,0,255,0
5.26161,-0.740238,0.0335512,0,255,0
5.31248,-0.729299,0.0231571,0,255,0
5.3823,-0.727067,0.0354881,0,255,0
5.44133,-0.725344,0.0328789,0,255,0
5.45642,-0.74639,0.0329027,0,255,0
5.51482,-0.72717,0.0343313,0,255,0
5.5637,-0.730336,0.0330162,0,255,0
5.63599,-0.726664,0.0283079,0,255,0
5.66541,-0.728142,0.0182438,0,255,0
5.70691,-0.718255,0.0322819,0,255,0
5.77882,-0.711255,0.0337505,0,255,0
5.8016,-0.736347,0.0303898,0,255,0
5.86949,-0.726428,0.0341415,0,255,0
-0.467587,-0.659582,-0.011631,255,0,0
-0.440035,-0.680945,-0.00707054,255,0,0
-0.372543,-0.671832,-0.0104103,255,0,0
-0.321091,-0.675524,-0.00470352,255,0,0
-0.280834,-0.689364,-0.0110168,255,0,0
-0.223475,-0.690682,-0.0104332,255,0,0
-0.161647,-0.69526,-0.00809097,255,0,0
-0.106702,-0.69563,-0.0105658,255,0,0
-0.0724487,-0.697894,-0.008461,255,0,0
-0.0320768,-0.694824,0.00151443,255,0,0
0.0243254,-0.700397,-0.00113583,255,0,0
0.0830717,-0.698745,0.00461292,255,0,0
0.121527,-0.700202,0.00703335,255,0,0
0.173833,-0.697416,0.0136662,255,0,0
0.230504,-0.700642,0.0114651,255,0,0
0.28933,-0.69764,0.018856,255,0,0
0.338571,-0.699124,0.028677,255,0,0
0.374809,-0.69835,0.0258904,255,0,0
0.420306,-0.697161,0.0296898,255,0,0
0.490524,-0.669894,0.0358725,255,0,0
0.538592,-0.696689,0.036665,255,0,0
0.580495,-0.685033,0.0364647,255,0,0
4.77985,-0.695994,0.0222626,255,0,0
4.8096,-0.697309,0.0277691,255,0,0
4.87259,-0.688232,0.0323563,171,83,0
4.93817,-0.662019,0.0336895,191,63,0
4.97029,-0.688421,0.0338211,0,254,0
5.0409,-0.665147,0.0320883,0,254,0
5.06968,-0.686561,0.0338326,0,254,0
5.10211,-0.69474,0.0338058,0,254,0
5.15688,-0.688949,0.0135975,0,254,0
5.22338,-0.680662,0.031085,0,254,0
5.25878,-0.688259,0.0210714,0,255,0
5.31871,-0.657088,0.0355911,0,255,0
5.35944,-0.680537,0.0298996,0,255,0
5.42172,-0.67515,0.0292873,0,255,0
5.49235,-0.671064,0.0300999,0,254,0
5.50678,-0.692765,0.0336523,0,254,0
5.55313,-0.687764,0.0258245,0,254,0
5.6209,-0.67793,0.0285177,0,255,0
5.69159,-0.6769,0.0298128,0,255,0
5.70717,-0.696205,0.0288658,0,255,0
5.76647,-0.678551,0.0340538,0,255,0
5.862,-0.677782,0.0341253,0,255,0
-0.467607,-0.64082,-0.0116367,255,0,0
-0.440079,-0.635972,-0.00708485,255,0,0
-0.371516,-0.645811,-0.00996494,255,0,0
-0.323582,-0.642286,-0.00367546,255,0,0
-0.262603,-0.650584,-0.00197887,255,0,0
-0.217324,-0.647007,-0.0028162,255,0,0
-0.183337,-0.646759,-1.90735e-06,255,0,0
-0.12386,-0.6515,0.0113506,255,0,0
-0.0881147,-0.649131,0.00561428,255,0,0
-0.0306387,-0.648911,0.011982,255,0,0
0.0288191,-0.651441,0.0190315,255,0,0
0.0923672,-0.646845,0.0222826,255,0,0
0.118608,-0.646538,0.0185223,255,0,0
0.162736,-0.647681,0.0299263,255,0,0
0.225852,-0.640138,0.0201063,255,0,0
0.317475,-0.645985,0.0312881,255,0,0
0.353663,-0.648415,0.0284595,255,0,0
4.91805,-0.644233,0.0306005,255,0,0
4.97289,-0.628167,0.0210381,255,0,0
5.01567,-0.631357,0.031806,199,55,0
5.05455,-0.64515,0.032217,4,250,0
5.10798,-0.646125,0.0302515,5,249,0
5.18635,-0.621694,0.0260572,64,190,0
5.20344,-0.645276,0.0257931,1,253,0
5.28788,-0.622889,0.0359449,1,253,0
5.30582,-0.643452,0.0365105,0,254,0
5.39461,-0.608922,0.0249434,18,236,0
5.40469,-0.633243,0.027586,0,254,0
5.47668,-0.629692,0.0282202,0,254,0
5.53306,-0.628615,0.0262365,1,253,0
5.5958,-0.616134,0.0225143,63,191,0
5.60717,-0.636131,0.0285025,0,255,0
5.67665,-0.62861,0.0299406,5,249,0
5.74243,-0.617145,0.0320883,22,232,0
5.75551,-0.640064,0.0335112,9,245,0
5.85428,-0.627563,0.0341101,127,127,0
5.0135,-0.602222,0.0302601,255,0,0
5.06612,-0.593775,0.0253029,255,0,0
5.16589,-0.588054,0.0235548,255,0,0
5.22098,-0.564618,0.0347853,255,0,0
5.26554,-0.579593,0.0320101,131,123,0
5.30782,-0.586719,0.0313463,128,126,0
5.37486,-0.570249,0.0343971,15,239,0
5.44669,-0.567701,0.0290241,255,0,0
5.45623,-0.58578,0.0328207,26,228,0
5.52277,-0.567571,0.030612,22,232,0
5.58896,-0.579646,0.0277672,99,155,0
5.66007,-0.576679,0.0303669,0,255,0
5.73312,-0.579238,0.0341263,0,255,0
5.78654,-0.599653,0.0175667,255,0,0
5.85446,-0.598507,0.0245399,255,0,0
5.22344,-0.550219,0.034997,255,0,0
5.2891,-0.55151,0.0302296,255,0,0
5.35662,-0.535402,0.0329008,255,0,0
5.4405,-0.544504,0.0292339,255,0,0
5.51133,-0.534246,0.0284796,204,51,0
5.57342,-0.51414,0.0353231,255,0,0
5.64487,-0.53035,0.0303373,255,0,0
5.65243,-0.537635,0.0197086,255,0,0
5.71625,-0.522906,0.0309191,191,63,0
5.56873,-0.493341,0.0303516,255,0,0
4.84939,-0.256922,0.0351152,255,0,0
-2.66402,-0.209609,-0.00609589,255,0,0
-2.63616,-0.207672,0.00100994,255,0,0
-1.78071,-0.207983,-0.00824261,255,0,0
-1.72515,-0.208607,-0.0110683,255,0,0
-1.63789,-0.208478,-0.0113487,255,0,0
-1.56207,-0.20509,-0.00541687,255,0,0
-1.54361,-0.214664,-0.00275803,255,0,0
-1.4859,-0.204489,-0.00426483,255,0,0
-1.41461,-0.205121,-0.00387383,255,0,0
-1.39193,-0.207425,0.00190353,255,0,0
-1.33243,-0.20799,-6.67572e-05,255,0,0
-1.26997,-0.208013,0.00681114,255,0,0
-1.2275,-0.209047,0.0135374,255,0,0
-1.19265,-0.211332,0.0102701,255,0,0
-1.11902,-0.207862,0.0138836,255,0,0
-1.06209,-0.206217,0.00582886,255,0,0
-1.03088,-0.207927,0.0148716,255,0,0
-0.964581,-0.204876,0.00483704,255,0,0
-0.918155,-0.205867,0.0150089,255,0,0
-0.880908,-0.211478,0.0222626,255,0,0
-0.825463,-0.20687,0.0206614,255,0,0
-0.789804,-0.211526,0.0224047,255,0,0
-0.717444,-0.208824,0.0216837,255,0,0
-0.662743,-0.212313,0.0251255,255,0,0
-0.638562,-0.208236,0.0210361,255,0,0
-0.567944,-0.208244,0.0209446,255,0,0
-0.526877,-0.210251,0.022892,255,0,0
-0.464531,-0.210638,0.021904,255,0,0
-0.435171,-0.211239,0.0221643,255,0,0
-0.385556,-0.208365,0.0207939,255,0,0
-0.304284,-0.211688,0.0227079,255,0,0
-0.292621,-0.21392,0.023983,255,0,0
-0.231572,-0.209511,0.0211191,255,0,0
-0.171678,-0.210562,0.0210629,255,0,0
-0.14334,-0.211578,0.0220804,255,0,0
-0.0735579,-0.209412,0.0237713,255,0,0
-0.035594,-0.20814,0.0284481,255,0,0
0.00933838,-0.210844,0.0302362,255,0,0
0.0775175,-0.209475,0.0329762,255,0,0
0.139215,-0.218686,0.0315027,255,0,0
4.79013,-0.221578,0.0223694,255,0,0
4.82185,-0.207443,0.0326595,255,0,0
4.86338,-0.249422,0.03512,255,0,0
-2.67509,-0.170869,0.00200272,255,0,0
-2.60989,-0.171408,0.00426388,255,0,0
-2.59618,-0.169475,0.0192757,255,0,0
-1.87022,-0.157224,-0.00720501,255,0,0
-1.78772,-0.164758,-0.0104799,255,0,0
-1.72793,-0.168579,-0.0116129,255,0,0
-1.65399,-0.160281,-0.00764561,255,0,0
-1.61634,-0.157431,-0.0114813,255,0,0
-1.57163,-0.174319,-0.0101652,255,0,0
-1.54776,-0.1595,-0.00835228,255,0,0
-1.4653,-0.158692,-0.0102081,255,0,0
-1.43028,-0.159393,-0.0114679,255,0,0
-1.37101,-0.159817,-0.0111208,255,0,0
-1.31994,-0.155938,-0.0113125,255,0,0
-1.28491,-0.155782,-0.0111589,255,0,0
-1.23401,-0.154857,-0.00872803,255,0,0
-1.16751,-0.155804,-0.010335,255,0,0
-1.10533,-0.155431,-0.00764847,255,0,0
-1.08861,-0.15522,-0.00311184,255,0,0
-1.02691,-0.155173,-0.00723743,255,0,0
-0.974534,-0.154988,-0.00339508,255,0,0
-0.908929,-0.153487,0.00380325,255,0,0
-0.883416,-0.157358,0.000944138,255,0,0
-0.844625,-0.15354,0.00415039,255,0,0
-0.759255,-0.154116,0.00447845,255,0,0
-0.744278,-0.157713,-0.00130558,255,0,0
-0.679429,-0.154163,0.00409508,255,0,0
-0.610827,-0.154322,0.00466061,255,0,0
-0.584559,-0.15829,-0.000980377,255,0,0
-0.520349,-0.15483,0.00502586,255,0,0
-0.458038,-0.158772,-0.000545502,255,0,0
-0.420726,-0.159758,-0.000397682,255,0,0
-0.382651,-0.155046,0.00468731,255,0,0
-0.316601,-0.158534,0.00226879,255,0,0
-0.256169,-0.155608,0.00491047,255,0,0
-0.223966,-0.158741,0.00207138,255,0,0
-0.161608,-0.155964,0.00421715,255,0,0
-0.116169,-0.157219,0.0053606,255,0,0
-0.0885086,-0.164134,0.0130768,255,0,0
-0.0389633,-0.16246,0.0160465,255,0,0
0.0292768,-0.160454,0.0240955,255,0,0
0.0535841,-0.164505,0.0294914,255,0,0
0.109253,-0.160926,0.0292559,255,0,0
0.17501,-0.162147,0.0332804,255,0,0
0.210802,-0.190224,0.0348253,255,0,0
4.67352,-0.153598,0.00630188,255,0,0
4.77742,-0.164755,0.0262108,255,0,0
4.81598,-0.169883,0.0339718,212,42,0
-2.66378,-0.148747,0.0222139,255,0,0
-2.62149,-0.121061,0.0267429,255,0,0
-2.59995,-0.145518,0.0173454,255,0,0
-2.52495,-0.121361,0.026741,255,0,0
-2.48185,-0.107105,-0.00767899,0,255,0
-2.41791,-0.107527,-0.00769234,0,255,0
-2.39369,-0.10832,-0.0107622,0,255,0
-1.94039,-0.108172,-0.00762558,0,255,0
-1.8592,-0.116383,-0.0104609,50,203,0
-1.78988,-0.119142,-0.011385,64,190,0
-1.73589,-0.108112,-0.00830841,20,234,0
-1.68232,-0.120593,-0.00946617,82,172,0
-1.62398,-0.109936,-0.0122223,31,223,0
-1.57756,-0.114105,-0.0104713,10,244,0
-1.50283,-0.118833,-0.0111237,91,162,0
-1.45405,-0.120088,-0.0110493,98,156,0
-1.40908,-0.113993,-0.0114689,84,170,0
-1.37677,-0.119303,-0.0107164,91,162,0
-1.31468,-0.114868,-0.0114679,87,167,0
-1.25403,-0.114698,-0.0106602,47,207,0
-1.22542,-0.117356,-0.0115719,87,167,0
-1.16758,-0.115169,-0.0119286,94,160,0
-1.11154,-0.113237,-0.0115204,1,253,0
-1.07343,-0.119387,-0.0113049,120,134,0
-1.01462,-0.109297,-0.0115795,4,250,0
-0.957038,-0.117151,-0.00852394,5,249,0
-0.910413,-0.118087,-0.00724411,14,240,0
-0.878583,-0.117208,-0.00397968,56,198,0
-0.823918,-0.118896,-0.0085516,55,199,0
-0.767472,-0.117516,-0.00371647,8,246,0
-0.736268,-0.1171,-0.00318527,1,253,0
-0.680739,-0.113926,-0.00502396,42,212,0
-0.621944,-0.117451,-0.00340843,1,253,0
-0.553131,-0.115143,-0.00432587,47,207,0
-0.542524,-0.112979,-0.00323677,0,254,0
-0.4931,-0.113226,-0.00327682,2,252,0
-0.427933,-0.113475,-0.00318718,3,251,0
-0.366721,-0.11349,-0.00330353,0,254,0
-0.3343,-0.114768,0.00137997,42,212,0
-0.276903,-0.11376,-0.00332832,0,254,0
-0.244631,-0.122169,0.00262165,127,127,0
-0.199984,-0.113939,-0.00173283,0,254,0
-0.128028,-0.113818,0.00437927,0,254,0
-0.0971508,-0.117027,0.00557327,53,201,0
-0.0381956,-0.112944,0.0116262,3,251,0
0.0318956,-0.117421,0.0130806,85,169,0
0.089222,-0.112626,0.0175362,9,245,0
0.12967,-0.11225,0.025897,9,245,0
0.173713,-0.115169,0.0285149,67,187,0
0.231895,-0.113964,0.0350895,3,251,0
0.26709,-0.114066,0.0334263,0,255,0
0.324805,-0.11504,0.0351629,0,255,0
4.68959,-0.149414,0.00953484,255,0,0
4.7337,-0.126069,0.0263004,255,0,0
4.7581,-0.118695,0.0337505,170,85,0
-2.55251,-0.0682304,-0.00934219,0,255,0
-2.54394,-0.0679746,-0.00291061,0,255,0
-2.46895,-0.0705488,0.0162935,0,255,0
-2.41966,-0.0668828,0.0157032,0,255,0
-2.3716,-0.0676372,0.0155106,0,255,0
-2.34462,-0.0589774,-0.0081892,0,255,0
-2.00873,-0.0626895,-0.00819206,0,255,0
-1.99904,-0.0609045,-0.00702477,0,255,0
-1.90999,-0.0703111,-0.0106859,0,255,0
-1.85515,-0.073072,-0.0114546,0,255,0
-1.81358,-0.0536282,-0.0101376,0,255,0
-1.77683,-0.0618412,-0.0111742,0,255,0
-1.74349,-0.065829,-0.00831318,0,255,0
-1.67783,-0.0608947,-0.0067215,0,255,0
-1.63166,-0.0653379,-0.0113258,0,255,0
-1.59601,-0.0684776,-0.0111055,0,255,0
-1.51574,-0.0618579,-0.0109234,0,255,0
-1.46791,-0.0724642,-0.0113373,0,255,0
-1.40734,-0.0641811,-0.0110226,0,255,0
-1.37643,-0.0792294,-0.0106916,0,255,0
-1.33661,-0.0595477,-0.0112667,0,255,0
-1.26499,-0.073241,-0.0118999,0,255,0
-1.22615,-0.0740712,-0.0116091,0,255,0
-1.16725,-0.0692382,-0.0110226,0,255,0
-1.10858,-0.0706244,-0.0116062,0,255,0
-1.07242,-0.0794976,-0.00540543,0,255,0
-1.04955,-0.073225,-0.00660038,0,255,0
-0.955762,-0.0736551,-0.00648975,0,255,0
-0.907056,-0.0792732,-0.00334167,0,255,0
-0.879455,-0.079376,0.000357628,0,255,0
-0.822665,-0.0796595,-0.00471687,0,255,0
-0.764714,-0.079664,-0.00332928,0,255,0
-0.736238,-0.0797732,-0.00330734,0,255,0
-0.680601,-0.0755234,-0.00182056,0,255,0
-0.62274,-0.0801809,-0.003335,0,255,0
-0.599636,-0.0698593,0.00137997,0,255,0
-0.54255,-0.0763257,-0.00323868,0,255,0
-0.493139,-0.0743716,-0.000720024,0,255,0
-0.427424,-0.074322,0.00220108,0,255,0
-0.365829,-0.076148,0.00331402,0,255,0
-0.334122,-0.0761604,0.00335217,0,255,0
-0.276039,-0.077749,0.00427341,0,255,0
-0.243249,-0.0763819,0.0117874,0,255,0
-0.198831,-0.0772245,0.00774765,0,255,0
-0.127162,-0.0760725,0.0106583,0,255,0
-0.0963326,-0.0769787,0.0125351,0,255,0
-0.0379257,-0.0765388,0.0170717,0,255,0
0.0331831,-0.0766971,0.0179501,0,255,0
0.0915623,-0.0777013,0.0230026,0,255,0
0.131093,-0.0773957,0.0276241,0,255,0
0.174277,-0.0790758,0.0291977,0,255,0
0.228691,-0.0797341,0.0348396,0,255,0
0.267052,-0.083626,0.0334349,0,255,0
4.67679,-0.093292,0.0122728,255,0,0
4.72657,-0.0657458,0.0315742,229,25,0
-2.55242,-0.0269592,-0.00896645,0,255,0
-2.52521,-0.0262792,-0.0106258,0,255,0
-2.46431,-0.0326321,0.0306835,0,255,0
-2.40661,-0.0219924,0.0307379,0,255,0
-2.3626,-0.0471754,0.0338316,0,255,0
-2.12567,-0.00855231,-0.00758934,0,255,0
-2.07416,-0.0129569,-0.00817299,0,255,0
-2.04473,-0.0101497,-0.00710392,0,255,0
-1.98715,-0.0196624,-0.0106554,0,255,0
-1.9091,-0.0139802,-0.0099144,0,255,0
-1.88244,-0.0248125,-0.0101204,0,255,0
-1.82946,-0.00900531,-0.0119791,0,255,0
-1.77967,-0.0137069,-0.0120058,0,255,0
-1.72466,-0.0132124,-0.0113735,0,255,0
-1.65619,-0.0179858,-0.0112734,0,255,0
-1.63092,-0.0141721,-0.0114031,0,255,0
-1.56886,-0.00526547,-0.0110283,0,255,0
-1.50618,-0.0275774,-0.0114222,0,255,0
-1.46754,-0.0274124,-0.0113945,0,255,0
-1.43839,-0.00869679,-0.0114727,0,255,0
-1.38394,-0.00746655,-0.00964928,0,255,0
-1.3258,-0.0227308,-0.0117283,0,255,0
-1.26625,-0.0123177,-0.0102739,0,255,0
-1.20617,-0.0229065,-0.0114746,0,255,0
-1.16736,-0.023629,-0.011364,0,255,0
-1.14292,-0.0157959,-0.00965691,0,255,0
-1.07187,-0.0241394,-0.00146294,0,255,0
-1.04951,-0.028038,-0.0047102,0,255,0
-0.955422,-0.0242908,-0.00331211,0,255,0
-0.90729,-0.0244896,-0.00280094,0,255,0
-0.878678,-0.0255251,0.00644207,0,255,0
-0.822291,-0.0248318,0.00190639,0,255,0
-0.76459,-0.0250351,-8.4877e-05,0,255,0
-0.735433,-0.0255032,0.00352669,0,255,0
-0.679783,-0.0253437,0.00403786,0,255,0
-0.621714,-0.02807,0.00536346,0,255,0
-0.599338,-0.02543,0.0053091,0,255,0
-0.541254,-0.0300825,0.00749779,0,255,0
-0.491821,-0.0264366,0.00956917,0,255,0
-0.426525,-0.0266399,0.00956917,0,255,0
-0.365092,-0.0268323,0.00961494,0,255,0
-0.333351,-0.0266552,0.00916481,0,255,0
-0.275408,-0.027108,0.00964546,0,255,0
-0.242219,-0.0264053,0.0185432,0,255,0
-0.198318,-0.027251,0.0122852,0,255,0
-0.126063,-0.0276499,0.0196924,0,255,0
-0.0953999,-0.028378,0.0194921,0,255,0
-0.037178,-0.0268414,0.0235081,0,255,0
0.0342722,-0.0267746,0.0261679,0,255,0
0.0924215,-0.029052,0.0296373,0,255,0
0.132236,-0.0296695,0.0351753,0,255,0
0.166793,-0.0415137,0.0337057,0,255,0
0.232705,-0.0406737,0.0351858,0,255,0
4.68575,-0.0221419,0.0287361,255,0,0
4.70318,-0.00627804,0.0335188,255,0,0
-2.53583,0.00508237,0.0204239,0,255,0
-2.46361,0.0274103,0.0276747,0,255,0
-2.40492,0.0208757,0.018775,0,255,0
-2.37443,0.0283201,-0.00719929,0,255,0
-2.32992,0.0395277,-0.0046711,0,255,0
-2.26793,0.0380585,-0.0111637,0,255,0
-2.24149,0.0284338,-0.00699902,0,255,0
-2.16983,0.0398285,-0.0102749,0,255,0
-2.12563,0.0328381,-0.0113182,0,255,0
-2.0974,0.0280089,-0.0115385,0,255,0
-2.04783,0.0235393,-0.00698471,0,255,0
-1.96434,0.0419216,-0.00841331,0,255,0
-1.92276,0.0408106,-0.0120525,0,255,0
-1.88328,0.0240347,-0.0100365,0,255,0
-1.82919,0.0389354,-0.0121813,0,255,0
-1.78499,0.0360992,-0.0108109,0,255,0
-1.7204,0.0317092,-0.0119228,0,255,0
-1.69095,0.0255475,-0.0110683,0,255,0
-1.63001,0.0321338,-0.0109806,0,255,0
-1.56756,0.02054,-0.0111122,0,255,0
-1.51082,0.0295174,-0.0115223,0,255,0
-1.48639,0.029145,-0.0105858,0,255,0
-1.43705,0.0294828,-0.011384,0,255,0
-1.38019,0.0290534,-0.0111179,0,255,0
-1.32495,0.0214109,-0.00614929,0,255,0
-1.26666,0.0218053,-0.0103579,0,255,0
-1.20801,0.0259368,-0.00815392,0,255,0
-1.16705,0.0201657,-0.00879765,0,255,0
-1.14534,0.0169599,-0.00329971,0,255,0
-1.07129,0.025609,0.00250912,0,255,0
-1.04939,0.0224168,-0.00329399,0,255,0
-0.955457,0.025943,-0.00309086,0,255,0
-0.906064,0.0243897,0.0047102,0,255,0
-0.878392,0.0280499,0.00906849,0,255,0
-0.821902,0.0255187,0.00535393,0,255,0
-0.763288,0.0221255,0.00959396,0,255,0
-0.734715,0.0260017,0.00965691,0,255,0
-0.679099,0.0255129,0.00922585,0,255,0
-0.621208,0.0256443,0.00967312,0,255,0
-0.59877,0.0244319,0.0105238,0,255,0
-0.541062,0.025389,0.00964165,0,255,0
-0.491856,0.0251627,0.00982666,0,255,0
-0.426453,0.0250702,0.0106506,0,255,0
-0.364563,0.0280142,0.0142183,0,255,0
-0.332665,0.0241511,0.0143642,0,255,0
-0.274642,0.0256555,0.0161781,0,255,0
-0.2412,0.0228946,0.0252752,0,255,0
-0.196988,0.0229988,0.0230999,0,255,0
-0.125119,0.0232956,0.0275564,0,255,0
-0.0940599,0.0217788,0.0289516,0,255,0
-0.0358534,0.0224648,0.034133,0,255,0
0.0336075,0.0145364,0.0324097,0,255,0
0.0916595,0.0136874,0.0350294,0,255,0
0.132386,-0.000677347,0.0351992,0,255,0
4.63667,0.0160809,0.0192585,255,0,0
4.67082,0.0343039,0.03267,255,0,0
-2.55479,0.0848887,-0.00697136,0,255,0
-2.53624,0.0853374,-0.00214958,0,255,0
-2.47268,0.0556881,0.0145226,0,255,0
-2.43864,0.0751073,0.0217676,0,255,0
-2.37866,0.0660067,0.0116596,0,255,0
-2.32395,0.0856898,0.0237722,0,255,0
-2.28398,0.0855572,0.0209675,0,255,0
-2.23394,0.0838978,0.0244827,0,255,0
-2.1962,0.0887051,-0.0100422,0,255,0
-2.11861,0.0906715,-0.00886822,0,255,0
-2.05711,0.0899036,-0.00827217,0,255,0
-2.0329,0.0897381,-0.010046,0,255,0
-1.97567,0.0876725,-0.0108728,0,255,0
-1.92312,0.0847492,-0.0121737,0,255,0
-1.86098,0.0930064,-0.0110188,0,255,0
-1.82278,0.0817542,-0.0113096,0,255,0
-1.75509,0.088197,-0.0113182,0,255,0
-1.73296,0.0879517,-0.0110559,0,255,0
-1.67902,0.0839651,-0.0113735,0,255,0
-1.61859,0.0758483,-0.0102844,0,255,0
-1.56992,0.076936,-0.0103664,0,255,0
-1.54363,0.0787473,-0.0118341,0,255,0
-1.46255,0.081028,-0.0113592,0,255,0
-1.43633,0.0725675,-0.00822163,0,255,0
-1.38703,0.0883658,-0.010603,0,255,0
-1.31975,0.0836871,-0.00725937,0,255,0
-1.26626,0.0715237,-0.00605965,0,255,0
-1.20769,0.07128,-0.00351334,0,255,0
-1.16647,0.0698936,-0.00435257,0,255,0
-1.14569,0.0712202,-0.00327396,0,255,0
-1.07054,0.0705633,0.00761127,0,255,0
-1.04909,0.0724773,-0.000369072,0,255,0
-0.954207,0.0695512,0.00713253,0,255,0
-0.90619,0.0707364,0.00965309,0,255,0
-0.877383,0.0718021,0.0147295,0,255,0
-0.821795,0.0703828,0.0090704,0,255,0
-0.763576,0.0711937,0.0100803,0,255,0
-0.734436,0.0751736,0.0123444,0,255,0
-0.678432,0.0752554,0.0144005,0,255,0
-0.620441,0.0743945,0.016161,0,255,0
-0.597976,0.0770416,0.0164957,0,255,0
-0.539968,0.074466,0.0186749,0,255,0
-0.49051,0.0745504,0.0207787,0,255,0
-0.425017,0.0738811,0.0224171,0,255,0
-0.363571,0.0744054,0.0224838,0,255,0
-0.33179,0.0748818,0.0208597,0,255,0
-0.273875,0.0740812,0.0226555,0,255,0
-0.239633,0.067225,0.0322247,0,255,0
-0.196199,0.0724325,0.0297623,0,255,0
-0.124222,0.0714195,0.0352192,0,255,0
-0.0903616,0.0603268,0.0336761,0,255,0
-0.0358353,0.0624549,0.0352201,0,255,0
4.62918,0.0745761,0.0255518,255,0,0
4.65777,0.0809662,0.0345879,255,0,0
-2.66585,0.142586,-0.00922775,0,255,0
-2.61358,0.139038,-0.00695038,0,255,0
-2.55128,0.103486,-0.00047493,0,255,0
-2.53565,0.117167,0.00800896,0,255,0
-2.46954,0.133326,-0.00322437,0,255,0
-2.4147,0.122571,0.00568008,0,255,0
-2.35871,0.106568,0.0197277,0,255,0
-2.34088,0.110006,0.0199089,0,255,0
-2.27501,0.103636,0.0335655,0,255,0
-2.21013,0.116184,0.0115032,0,255,0
-2.19247,0.12528,0.0113306,0,255,0
-2.11618,0.122455,-0.0082922,0,255,0
-2.08197,0.133623,-0.0113068,0,255,0
-2.02088,0.126851,-0.012043,0,255,0
-1.98813,0.136585,-0.0116796,0,255,0
-1.93286,0.141571,-0.0102234,0,255,0
-1.86926,0.132685,-0.0109987,0,255,0
-1.81807,0.135333,-0.0112782,0,255,0
-1.77231,0.137257,-0.0113602,0,255,0
-1.73842,0.137414,-0.00989151,0,255,0
-1.66653,0.119671,-0.0116711,0,255,0
-1.60764,0.132446,-0.0109024,0,255,0
-1.57181,0.122995,-0.0106354,0,255,0
-1.542,0.127365,-0.00662327,0,255,0
-1.4831,0.12338,-0.0114803,0,255,0
-1.4324,0.13527,-0.00687408,0,255,0
-1.39487,0.135359,-0.00675488,0,255,0
-1.31882,0.126762,-0.00314045,0,255,0
-1.26548,0.125404,-0.00105381,0,255,0
-1.20753,0.126408,-0.00246048,0,255,0
-1.16565,0.121878,0.00178051,0,255,0
-1.14493,0.128036,0.00322247,0,255,0
-1.0699,0.121216,0.0119238,0,255,0
-1.04788,0.121757,0.00966454,0,255,0
-0.953946,0.121082,0.00966358,0,255,0
-0.905452,0.12124,0.0104523,0,255,0
-0.877051,0.121049,0.0185213,0,255,0
-0.820376,0.120445,0.0146866,0,255,0
-0.762511,0.12324,0.0159636,0,255,0
-0.733196,0.124932,0.0225105,0,255,0
-0.677555,0.124345,0.0208149,0,255,0
-0.619687,0.124578,0.0225334,0,255,0
-0.597232,0.124228,0.0220852,0,255,0
-0.539542,0.124327,0.0225029,0,255,0
-0.490348,0.124173,0.0225487,0,255,0
-0.425004,0.124274,0.0230293,0,255,0
-0.363074,0.125766,0.0268688,0,255,0
-0.330747,0.123962,0.028511,0,255,0
-0.272472,0.124618,0.0340004,0,255,0
-0.243696,0.0993311,0.0365486,0,255,0
-0.195446,0.115693,0.0352087,0,255,0
-0.124222,0.100646,0.0352335,0,255,0
4.61843,0.132704,0.0311871,255,0,0
-2.72692,0.191172,-0.00809956,0,255,0
-2.6745,0.171219,-0.0105896,0,255,0
-2.63316,0.186783,-0.00919056,0,255,0
-2.53645,0.155525,0.0177784,0,255,0
-2.47857,0.168291,-0.00541592,0,255,0
-2.41386,0.162408,0.0116949,0,255,0
-2.39475,0.169999,0.00985527,0,255,0
-2.33305,0.157996,0.0137024,0,255,0
-2.27468,0.162722,-0.00839329,0,255,0
-2.23703,0.185146,-0.00748539,0,255,0
-2.18667,0.186707,-0.0045042,0,255,0
-2.12627,0.186513,-0.00389481,0,255,0
-2.08037,0.181788,-0.0111122,0,255,0
-2.02478,0.187169,-0.0116978,0,255,0
-1.98258,0.178331,-0.0110664,0,255,0
-1.92222,0.184628,-0.0112123,0,255,0
-1.85908,0.179351,-0.010829,0,255,0
-1.81518,0.176901,-0.00997543,0,255,0
-1.78412,0.166464,-0.0113153,0,255,0
-1.72956,0.167942,-0.0116482,0,255,0
-1.66867,0.178401,-0.0115862,0,255,0
-1.60321,0.182026,-0.0114756,0,255,0
-1.57171,0.166746,-0.00865746,0,255,0
-1.5433,0.176955,-0.0061512,0,255,0
-1.484,0.166963,-0.00943565,0,255,0
-1.43162,0.171807,-0.00250816,0,255,0
-1.3945,0.17222,-0.00327873,0,255,0
-1.31893,0.172218,-0.00282097,0,255,0
-1.2649,0.172921,0.00293255,0,255,0
-1.20668,0.174278,0.00538921,0,255,0
-1.16512,0.176953,0.00595093,0,255,0
-1.14389,0.177524,0.00968361,0,255,0
-1.06921,0.175384,0.0166922,0,255,0
-1.04791,0.177066,0.00989819,0,255,0
-0.953824,0.175943,0.0112114,0,255,0
-0.904458,0.174502,0.020153,0,255,0
-0.876306,0.175281,0.0229979,0,255,0
-0.819987,0.1739,0.0190916,0,255,0
-0.761949,0.175442,0.0224895,0,255,0
-0.733232,0.175379,0.0227575,0,255,0
-0.676879,0.174227,0.0259399,0,255,0
-0.619576,0.175121,0.0239067,0,255,0
-0.596557,0.174103,0.0272131,0,255,0
-0.539025,0.175152,0.0270443,0,255,0
-0.489517,0.173801,0.0297451,0,255,0
-0.423976,0.17153,0.0315123,0,255,0
-0.362099,0.171467,0.0352507,0,255,0
-0.330087,0.161726,0.0335178,0,255,0
-0.272383,0.161945,0.0352545,0,255,0
4.59214,0.187599,0.0335283,255,0,0
-2.75642,0.241365,-0.0114689,0,255,0
-2.71572,0.225186,-0.00711536,0,255,0
-2.67872,0.234279,-0.0112562,0,255,0
-2.62219,0.236183,-0.00827217,0,255,0
-2.5514,0.235667,-0.00820732,0,255,0
-2.46249,0.220936,0.00594902,0,255,0
-2.4176,0.229728,-0.00951672,0,255,0
-2.39656,0.238608,0.0123053,0,255,0
-2.3104,0.236471,0.0276976,0,255,0
-2.26598,0.238857,0.0256844,0,255,0
-2.24598,0.210524,0.000616074,0,255,0
-2.17925,0.211755,0.000174522,0,255,0
-2.14079,0.208677,-0.00264931,0,255,0
-2.09073,0.233414,-0.0111866,0,255,0
-2.02838,0.232982,-0.0113239,0,255,0
-1.97211,0.233265,-0.011342,0,255,0
-1.90697,0.232011,-0.0109138,0,255,0
-1.85689,0.215011,-0.00952721,0,255,0
-1.84168,0.23999,-0.0103903,0,255,0
-1.78704,0.218766,-0.0117998,0,255,0
-1.72833,0.228721,-0.0115128,0,255,0
-1.67199,0.228553,-0.0114431,0,255,0
-1.61106,0.222937,-0.00616264,0,255,0
-1.57085,0.217346,-0.0034132,0,255,0
-1.54402,0.222495,-0.00475597,0,255,0
-1.48337,0.217567,-0.00485039,0,255,0
-1.43141,0.217635,-0.0018816,0,255,0
-1.3948,0.218322,-0.00283146,0,255,0
-1.31852,0.22149,0.000171661,0,255,0
-1.26431,0.218291,0.007864,0,255,0
-1.20606,0.22084,0.00955391,0,255,0
-1.16457,0.220532,0.0100584,0,255,0
-1.14347,0.220676,0.00971985,0,255,0
-1.06865,0.220909,0.0205755,0,255,0
-1.04744,0.220095,0.0139313,0,255,0
-0.95259,0.217958,0.0212822,0,255,0
-0.904706,0.220962,0.0225954,0,255,0
-0.875623,0.225541,0.0276508,0,255,0
-0.819894,0.220793,0.0235367,0,255,0
-0.761903,0.221519,0.0234947,0,255,0
-0.732577,0.225807,0.0283546,0,255,0
-0.676497,0.227139,0.0293627,0,255,0
-0.618325,0.225917,0.0346565,0,255,0
-0.595849,0.221991,0.032505,0,255,0
-0.53803,0.225713,0.0352688,0,255,0
-0.488807,0.224621,0.0352154,0,255,0
-0.423263,0.217126,0.0350971,0,255,0
-0.362082,0.204543,0.0352669,0,255,0
-2.82404,0.293547,-0.00689602,0,255,0
-2.75725,0.278879,-0.0111561,0,255,0
-2.71605,0.276139,-0.00687885,0,255,0
-2.68904,0.275542,-0.0098629,0,255,0
-2.61936,0.272774,-0.0118828,0,255,0
-2.55166,0.284216,-0.00633621,0,255,0
-2.54179,0.277309,-0.0112801,0,255,0
-2.48791,0.28672,-0.011097,0,255,0
-2.41781,0.288816,-0.011097,0,255,0
-2.35954,0.286449,-0.0110092,0,255,0
-2.34438,0.271483,-0.0107937,0,255,0
-2.2827,0.281018,0.028964,0,255,0
-2.23645,0.279655,0.0281343,0,255,0
-2.1796,0.276143,0.0277939,0,255,0
-2.14008,0.271262,0.0230637,0,255,0
-2.08988,0.26649,-0.0101166,0,255,0
-2.04261,0.287572,-0.0105219,0,255,0
-1.9868,0.282117,-0.0114975,0,255,0
-1.93072,0.278972,-0.0105219,0,255,0
-1.8702,0.289522,-0.0112019,0,255,0
-1.80841,0.289302,-0.0113859,0,255,0
-1.78657,0.27115,-0.00869751,0,255,0
-1.74014,0.287023,-0.00797081,0,255,0
-1.66933,0.284467,-0.00585556,0,255,0
-1.61301,0.26961,-0.00448227,0,255,0
-1.56997,0.272728,0.00260067,0,255,0
-1.54389,0.269495,-0.00316429,0,255,0
-1.4833,0.27285,0.00154591,0,255,0
-1.43063,0.272269,0.00306797,0,255,0
-1.39421,0.272342,0.00316048,0,255,0
-1.31732,0.272637,0.00985241,0,255,0
-1.26372,0.271626,0.012167,0,255,0
-1.20603,0.27164,0.0105152,0,255,0
-1.16394,0.272286,0.0149412,0,255,0
-1.14353,0.27216,0.0170612,0,255,0
-1.06786,0.270306,0.0258398,0,255,0
-1.04642,0.271448,0.0225477,0,255,0
-0.952495,0.271056,0.0225487,0,255,0
-0.904126,0.266863,0.0236702,0,255,0
-0.874671,0.273449,0.0331373,0,255,0
-0.818686,0.269984,0.0276365,0,255,0
-0.760968,0.270688,0.0301695,0,255,0
-0.73173,0.274356,0.035285,0,255,0
-0.676011,0.273499,0.0335541,0,255,0
-0.618309,0.274091,0.0352907,0,255,0
-0.59574,0.257814,0.0335493,0,255,0
-0.538058,0.273047,0.0352888,0,255,0
-0.489114,0.263124,0.0352859,0,255,0
-2.82405,0.320303,-0.00688744,0,255,0
-2.77028,0.335082,-0.010664,0,255,0
-2.74148,0.319955,-0.00305748,0,255,0
-2.68421,0.334834,-0.0111217,0,255,0
-2.61912,0.328927,-0.0120039,0,255,0
-2.55291,0.32335,-0.00900745,0,255,0
-2.54324,0.321941,-0.0112944,0,255,0
-2.45752,0.332863,-0.0110397,0,255,0
-2.41547,0.328049,-0.0110102,0,255,0
-2.35986,0.317528,-0.0109873,0,255,0
-2.33254,0.335597,-0.0106831,0,255,0
-2.26832,0.32929,-0.0112562,0,255,0
-2.22768,0.326151,-0.0112295,0,255,0
-2.16808,0.328198,-0.0107212,0,255,0
-2.10788,0.329714,-0.00927162,0,255,0
-2.08994,0.338379,-0.0112095,0,255,0
-2.02611,0.331172,-0.011775,0,255,0
-1.9863,0.321879,-0.0113306,0,255,0
-1.92803,0.327553,-0.00997734,0,255,0
-1.87212,0.318033,-0.0112953,0,255,0
-1.81303,0.328557,-0.00674629,0,255,0
-1.78579,0.324848,-0.0033741,0,255,0
-1.74592,0.328646,-0.00629711,0,255,0
-1.66904,0.322817,-0.0032053,0,255,0
-1.61288,0.322599,-0.00317383,0,255,0
-1.56908,0.322328,0.0062027,0,255,0
-1.5439,0.3223,-0.00285053,0,255,0
-1.48206,0.321423,0.005476,0,255,0
-1.43002,0.32208,0.010726,0,255,0
-1.39303,0.322656,0.0097065,0,255,0
-1.31741,0.322635,0.0104189,0,255,0
-1.26311,0.327183,0.0170088,0,255,0
-1.20476,0.327452,0.0210152,0,255,0
-1.16325,0.327073,0.0202045,0,255,0
-1.14243,0.327391,0.0225668,0,255,0
-1.06707,0.324555,0.0311632,0,255,0
-1.0464,0.326997,0.0232763,0,255,0
-0.952001,0.326134,0.0269556,0,255,0
-0.902865,0.322227,0.0338964,0,255,0
-0.867522,0.312994,0.0340996,0,255,0
-0.817504,0.322233,0.0326605,0,255,0
-0.760503,0.325624,0.0352592,0,255,0
-0.731809,0.324119,0.0353069,0,255,0
-0.676049,0.303045,0.0335636,0,255,0
-0.618365,0.315537,0.0353031,0,255,0
-2.9002,0.383059,-0.00715637,0,255,0
-2.82674,0.376766,-0.00736237,0,255,0
-2.75374,0.386112,-0.0082531,0,255,0
-2.74469,0.385879,-0.00975227,0,255,0
-2.6864,0.369061,-0.0119686,0,255,0
-2.61033,0.375696,-0.00943279,0,255,0
-2.58179,0.373217,-0.0111723,0,255,0
-2.52003,0.373141,-0.0109787,0,255,0
-2.45461,0.371965,-0.0109482,0,255,0
-2.41621,0.377813,-0.0110493,0,255,0
-2.39276,0.382259,-0.010334,0,255,0
-2.33247,0.378278,-0.0112839,0,255,0
-2.27009,0.384715,-0.0106468,0,255,0
-2.20596,0.381362,-0.0104504,0,255,0
-2.17406,0.374949,-0.0114622,0,255,0
-2.14959,0.381556,-0.0103664,0,255,0
-2.09128,0.37431,-0.0116529,0,255,0
-2.03079,0.382986,-0.0111828,0,255,0
-1.96719,0.378185,-0.0113773,0,255,0
-1.91327,0.384797,-0.0100536,0,255,0
-1.86905,0.379545,-0.00780487,0,255,0
-1.81294,0.368655,-0.00327682,0,255,0
-1.78505,0.368553,0.00155067,0,255,0
-1.74572,0.368456,-0.0031786,0,255,0
-1.66901,0.36887,-0.00255775,0,255,0
-1.61252,0.371937,0.000627518,0,255,0
-1.59916,0.384091,0.0081358,0,255,0
-1.54252,0.367287,0.00851727,0,255,0
-1.48142,0.366924,0.0100479,0,255,0
-1.42984,0.367092,0.0113506,0,255,0
-1.3932,0.366905,0.0105152,0,255,0
-1.31672,0.366828,0.0157032,0,255,0
-1.26234,0.370514,0.0223417,0,255,0
-1.20485,0.368636,0.022418,0,255,0
-1.19633,0.379959,0.026968,0,255,0
-1.14201,0.37039,0.0226355,0,255,0
-1.06688,0.368997,0.0332689,0,255,0
-1.04544,0.370439,0.0308609,0,255,0
-0.950994,0.375632,0.0353241,0,255,0
-0.903087,0.374182,0.0352926,0,255,0
-0.817418,0.359046,0.0335827,0,255,0
-0.759728,0.366576,0.0353212,0,255,0
-0.731847,0.353796,0.0353165,0,255,0
-2.97566,0.442181,-0.00801086,0,255,0
-2.90508,0.427467,-0.011404,0,255,0
-2.87627,0.437791,-0.00910187,0,255,0
-2.81669,0.429964,-0.00985146,0,255,0
-2.75359,0.42386,-0.00821209,0,255,0
-2.74262,0.428566,-0.011467,0,255,0
-2.68665,0.418491,-0.0118694,0,255,0
-2.61302,0.428945,-0.0108652,0,255,0
-2.58416,0.429977,-0.0118637,0,255,0
-2.53696,0.432889,-0.0106926,0,255,0
-2.48242,0.427395,-0.0111094,0,255,0
-2.41716,0.42448,-0.0111284,0,255,0
-2.36542,0.428778,-0.0103617,0,255,0
-2.31225,0.434376,-0.0114937,0,255,0
-2.28689,0.434018,-0.00882721,0,255,0
-2.24196,0.431541,-0.0116892,0,255,0
-2.17573,0.419846,-0.0112772,0,255,0
-2.12558,0.429604,-0.0112286,0,255,0
-2.09085,0.419677,-0.00854111,0,255,0
-2.03251,0.428351,-0.0113869,0,255,0
-1.97318,0.434026,-0.00837517,0,255,0
-1.90839,0.430324,-0.00687981,0,255,0
-1.86849,0.41957,-0.00428391,0,255,0
-1.813,0.419436,-0.00320435,0,255,0
-1.78439,0.421331,0.00604343,0,255,0
-1.7458,0.419318,-0.00303459,0,255,0
-1.66843,0.422654,0.00248623,0,255,0
-1.61143,0.423207,0.00978279,0,255,0
-1.60037,0.422909,0.00862885,0,255,0
-1.54243,0.422987,0.00983524,0,255,0
-1.48179,0.422011,0.0144777,0,255,0
-1.43078,0.424024,0.0196962,0,255,0
-1.39222,0.422802,0.019784,0,255,0
-1.31585,0.422648,0.0227671,0,255,0
-1.26179,0.422263,0.0271797,0,255,0
-1.20663,0.422929,0.0271254,0,255,0
-1.19967,0.422236,0.0283089,0,255,0
-1.1414,0.421564,0.0337524,0,255,0
-1.04498,0.42132,0.0353384,0,255,0
-0.951053,0.425508,0.0353413,0,255,0
-0.90207,0.412502,0.0353365,0,255,0
-2.97489,0.48005,-0.00969028,0,255,0
-2.90666,0.484934,-0.011157,0,255,0
-2.86855,0.46973,-0.00623703,0,255,0
-2.82082,0.472671,-0.00819683,0,255,0
-2.75206,0.481534,-0.00632572,0,255,0
-2.7425,0.468027,-0.0116863,0,255,0
-2.67387,0.48259,-0.009305,0,255,0
-2.60849,0.478695,-0.0109272,0,255,0
-2.55655,0.468691,-0.0113659,0,255,0
-2.5441,0.468564,-0.0102282,0,255,0
-2.48658,0.479207,-0.0108128,0,255,0
-2.42187,0.479109,-0.0104465,0,255,0
-2.37544,0.479613,-0.0116405,0,255,0
-2.30878,0.470703,-0.0115652,0,255,0
-2.29351,0.478904,-0.00810528,0,255,0
-2.24223,0.468816,-0.0110874,0,255,0
-2.18194,0.473276,-0.0105219,0,255,0
-2.11841,0.472782,-0.0113525,0,255,0
-2.06634,0.476336,-0.00523663,0,255,0
-2.03252,0.4684,-0.0109568,0,255,0
-1.97353,0.476168,-0.00479603,0,255,0
-1.90788,0.468377,-0.00314713,0,255,0
-1.86839,0.468251,-0.00300598,0,255,0
-1.81288,0.468096,-0.0017519,0,255,0
-1.78411,0.472492,0.00831509,0,255,0
-1.74557,0.472708,-0.000793457,0,255,0
-1.66757,0.472646,0.0097723,0,255,0
-1.61145,0.472472,0.0100269,0,255,0
-1.59945,0.472317,0.0145941,0,255,0
-1.54182,0.472161,0.0149374,0,255,0
-1.48647,0.467835,0.0217133,0,255,0
-1.43216,0.471269,0.0224075,0,255,0
-1.39155,0.471985,0.0227041,0,255,0
-1.31581,0.471742,0.0243254,0,255,0
-1.26205,0.468564,0.0310669,0,255,0
-1.20683,0.468066,0.0350523,0,255,0
-1.19872,0.476023,0.0336285,0,255,0
-1.14051,0.471393,0.0353537,0,255,0
-1.04505,0.466888,0.0353546,0,255,0
-0.951087,0.452317,0.0353498,0,255,0
-3.01122,0.535501,-0.00797844,0,255,0
-2.97453,0.523424,-0.0111132,0,255,0
-2.90292,0.527107,-0.0108652,0,255,0
-2.89242,0.526951,-0.00984001,0,255,0
-2.82083,0.517645,-0.00815964,0,255,0
-2.78009,0.52239,-0.0117245,0,255,0
-2.72774,0.532343,-0.0105257,0,255,0
-2.67106,0.518771,-0.0108347,0,255,0
-2.61713,0.519391,-0.0112171,0,255,0
-2.55589,0.524578,-0.0104189,0,255,0
-2.54512,0.518946,-0.00957108,0,255,0
-2.48164,0.538277,-0.0096035,0,255,0
-2.41282,0.52972,-0.011631,0,255,0
-2.37569,0.519593,-0.0104265,0,255,0
-2.31496,0.533623,-0.0101938,0,255,0
-2.25826,0.519336,-0.0108128,0,255,0
-2.24145,0.519179,-0.0058651,0,255,0
-2.1881,0.530054,-0.0104122,0,255,0
-2.12453,0.530182,-0.00779915,0,255,0
-2.05921,0.519508,-0.00471687,0,255,0
-2.03194,0.518756,-0.00649261,0,255,0
-1.97339,0.51882,-0.00312805,0,255,0
-1.90794,0.518616,-0.00311279,0,255,0
-1.86836,0.518934,-0.0023632,0,255,0
-1.81168,0.515306,0.00860596,0,255,0
-1.78349,0.517847,0.0125208,0,255,0
-1.74426,0.518673,0.00979519,0,255,0
-1.6675,0.517915,0.0107517,0,255,0
-1.61078,0.517764,0.0157909,0,255,0
-1.59918,0.522362,0.0177813,0,255,0
-1.54091,0.522429,0.0226564,0,255,0
-1.48567,0.52197,0.0267019,0,255,0
-1.43056,0.522041,0.0259323,0,255,0
-1.39144,0.521949,0.0268593,0,255,0
-1.31491,0.521519,0.0340261,0,255,0
-1.26142,0.511882,0.0336342,0,255,0
-1.20374,0.521409,0.0353727,0,255,0
-1.1397,0.507549,0.035368,0,255,0
-3.03173,0.583741,-0.0108614,0,255,0
-2.96357,0.590164,-0.0102091,0,255,0
-2.90596,0.577304,-0.0110903,0,255,0
-2.87827,0.56909,-0.00839329,0,255,0
-2.83766,0.589177,-0.010272,0,255,0
-2.78092,0.580847,-0.011899,0,255,0
-2.73742,0.581218,-0.0110283,0,255,0
-2.66084,0.586336,-0.0109377,0,255,0
-2.61716,0.570325,-0.0110626,0,255,0
-2.57907,0.581077,-0.00929737,0,255,0
-2.52963,0.571577,-0.0115776,0,255,0
-2.47087,0.574804,-0.0105009,0,255,0
-2.41107,0.570539,-0.00883198,0,255,0
-2.3549,0.585665,-0.0106125,0,255,0
-2.31709,0.57051,-0.0112152,0,255,0
-2.25867,0.584328,-0.00679779,0,255,0
-2.24579,0.580677,-0.00471497,0,255,0
-2.19052,0.570232,-0.00465965,0,255,0
-2.12446,0.570071,-0.00370407,0,255,0
-2.05905,0.569836,-0.00296497,0,255,0
-2.03157,0.572342,-0.00331593,0,255,0
-1.97346,0.569583,-0.00309181,0,255,0
-1.90785,0.569082,-0.00203228,0,255,0
-1.86758,0.56764,0.00424194,0,255,0
-1.81154,0.568948,0.00977135,0,255,0
-1.78295,0.568362,0.0162697,0,255,0
-1.74432,0.568745,0.00986862,0,255,0
-1.66721,0.568473,0.0135288,0,255,0
-1.60997,0.568212,0.0226765,0,255,0
-1.59849,0.573236,0.021945,0,255,0
-1.54092,0.573268,0.0229893,0,255,0
-1.4853,0.572052,0.0312624,0,255,0
-1.43073,0.572795,0.0345449,0,255,0
-1.39005,0.572735,0.0353212,0,255,0
-1.31434,0.572295,0.035388,0,255,0
-1.20378,0.553577,0.0353832,0,255,0
-3.12127,0.631846,-0.00736141,0,255,0
-3.0307,0.616733,-0.0112782,0,255,0
-2.9601,0.617111,-0.00981617,0,255,0
-2.91708,0.633372,-0.00827122,0,255,0
-2.87669,0.62845,-0.00816917,0,255,0
-2.84586,0.617736,-0.0117378,0,255,0
-2.79881,0.624074,-0.0108109,0,255,0
-2.73809,0.618736,-0.0109997,0,255,0
-2.65644,0.619086,-0.010663,0,255,0
-2.62815,0.625299,-0.0114164,0,255,0
-2.57095,0.630156,-0.0112982,0,255,0
-2.53198,0.62498,-0.0114403,0,255,0
-2.47313,0.629286,-0.0113516,0,255,0
-2.4132,0.631759,-0.00659752,0,255,0
-2.38215,0.63076,-0.00851154,0,255,0
-2.31649,0.619168,-0.00657749,0,255,0
-2.29142,0.628514,-0.00502586,0,255,0
-2.2486,0.61932,-0.00363255,0,255,0
-2.19041,0.618904,-0.0032959,0,255,0
-2.12444,0.618725,-0.00306129,0,255,0
-2.05907,0.618493,-0.00261021,0,255,0
-2.0309,0.618066,0.00164795,0,255,0
-1.97311,0.622249,0.000219345,0,255,0
-1.90669,0.617915,0.00766659,0,255,0
-1.86693,0.618642,0.00987816,0,255,0
-1.81159,0.618469,0.00987625,0,255,0
-1.78227,0.617665,0.0208836,0,255,0
-1.74437,0.61819,0.0101357,0,255,0
-1.66622,0.61523,0.0217419,0,255,0
-1.61002,0.617535,0.0228958,0,255,0
-1.598,0.614269,0.0273876,0,255,0
-1.54004,0.614292,0.0307226,0,255,0
-1.48406,0.61309,0.0336676,0,255,0
-1.42955,0.621197,0.0351562,0,255,0
-1.39086,0.620505,0.0354052,0,255,0
-1.31438,0.608559,0.0354023,0,255,0
-3.10735,0.678063,-0.0111933,0,255,0
-3.01884,0.682135,-0.00944138,0,255,0
-2.96013,0.673353,-0.00981045,0,255,0
-2.92779,0.677167,-0.0109825,0,255,0
-2.86869,0.68502,-0.00952911,0,255,0
-2.80515,0.670937,-0.0108652,0,255,0
-2.79965,0.68076,-0.0109367,0,255,0
-2.71926,0.675462,-0.0100403,0,255,0
-2.66626,0.681878,-0.0113153,0,255,0
-2.6245,0.686077,-0.0106239,0,255,0
-2.56426,0.682004,-0.0100031,0,255,0
-2.51145,0.679278,-0.00813293,0,255,0
-2.47325,0.671157,-0.011179,0,255,0
-2.41416,0.670915,-0.00366783,0,255,0
-2.38902,0.670485,-0.00328541,0,255,0
-2.34598,0.684179,0.00139427,0,255,0
-2.29195,0.670628,-0.0030365,0,255,0
-2.24797,0.67371,0.00253296,0,255,0
-2.1901,0.673076,0.00135708,0,255,0
-2.12395,0.672503,0.00169373,0,255,0
-2.0579,0.670167,0.00513172,0,255,0
-2.03044,0.670304,0.00534344,0,255,0
-1.97193,0.67054,0.00984383,0,255,0
-1.90648,0.669909,0.00984955,0,255,0
-1.86697,0.670506,0.0100422,0,255,0
-1.81057,0.66984,0.018856,0,255,0
-1.78205,0.669083,0.0227079,0,255,0
-1.74331,0.669544,0.0190086,0,255,0
-1.66608,0.669146,0.0233831,0,255,0
-1.60959,0.668826,0.0270958,0,255,0
-1.59779,0.668315,0.0293522,0,255,0
-1.53948,0.668286,0.0354195,0,255,0
-1.42642,0.654731,0.0354166,0,255,0
-1.39091,0.654621,0.0354166,0,255,0
-3.17459,0.739854,-0.0101671,0,255,0
-3.10697,0.732314,-0.0112667,0,255,0
-3.09909,0.733203,-0.0035305,0,255,0
-3.01757,0.719173,-0.00949287,0,255,0
-2.98107,0.724866,-0.00808716,0,255,0
